-0.6202883208904729	-0.283500329048662	-0.09110351157545989
0.14981432160323663	0.3735363226287758	-0.11734802352758915
-0.5271229592471709	-0.40327530001038786	-0.13877169999828007
-0.5507225423963487	-0.5296677411069793	-0.14952731808862946
-0.20344418246308557	0.18643863310883194	0.1546993555456913
0.038752167349039045	-0.21986637957733093	0.04381518139237954
-0.3613968012506725	-0.5723799175457193	-0.10684235592829434
-0.5296487492402013	-0.44990152446585685	-0.15439853875989162
0.5442462306540559	0.6507377131335644	0.04230398494440503
0.060288801422435784	0.1511440394461487	-0.12726155775385772
-0.5518715473620894	-0.5301315707859995	-0.14988280667227158
-0.4625266719824071	-0.5935140294067147	-0.13177146258674194
0.5508607902083232	-0.37503470044047005	-0.08529771993134976
-0.4806178899456649	-0.54429446778157	-0.14735435771499064
-0.47063698747199256	-0.3785364583032488	-0.11011574995599631
0.6228646957805051	-0.31865275178745966	-0.09286897962434594
0.5096470804165093	-0.5403015451777609	-0.10507869236699903
0.3845117861683514	0.7723126233222691	-0.006511349361089365
0.43004927216892375	0.7220142543078027	0.0018831420341189936
0.15008359090708417	0.37299307295268475	-0.11804172043367904
-0.49948268901321546	-0.3363066886907429	-0.10517895144764679
-0.5003983234210783	-0.33741853359300605	-0.10463499778278801
-0.48614537584216194	-0.5523216773199306	-0.1458595586484944
-0.48645734156116016	-0.5523751611450928	-0.14603105285613543
0.37743119649988743	0.753023143908508	0.003516203662067349
-0.5382491836695311	-0.32619602683786186	-0.10390983421466879
0.060751871233953425	0.14989258614456083	-0.12613097192111083
-0.42031932424246266	-0.5895492087153343	-0.12117668701531396
-0.030777415168185093	0.3211576144556042	-0.056438171930007
-0.5077726262743368	-0.42739174554681986	-0.14777764073743596
0.4101350134870664	0.7672123936309804	-0.007802727804180557
0.5083330128645357	-0.5405310274760446	-0.10643668354854645
0.3953141785039333	0.7559381359968926	-0.004306235405703469
0.39583332427441387	0.7552737632306046	-0.004828765973081527
0.29180990523030287	0.2993114572203687	-0.03202491896135633
0.12553973752173472	0.2304745807894796	-0.13036742491350328
-0.5395516294465442	-0.3269661157446607	-0.10204638006951744
0.6223006469822507	-0.3173800768849659	-0.09117757160863305
-0.5376393227716162	-0.4594796318347494	-0.15581390273517598
-0.42072517410733196	-0.4560789581408514	-0.12493232571624116
-0.4598752600508748	-0.5909406347282606	-0.13105083222985647
-0.5075410622190567	-0.4275465465866636	-0.14965534630297017
0.14848018935137935	0.3732417994726386	-0.11578128136062571
0.377425488955253	0.7533458671199547	0.004086121127599012
0.3953270850455338	0.7552233692465258	-0.00424866949120219
-0.054409689387161515	0.32062218545266413	-0.03676826304833882
0.5466870300634773	0.6585122640453889	0.03987227677661775
0.05859669668141356	0.15239599139269483	-0.12471019615024595
-0.5522540839704387	-0.5305474881171488	-0.14871969804164
0.05874033350680915	0.4136686172171196	-0.13696505566393413
0.38551617914922587	0.7850934972752364	-0.0076459548357794265
-0.20178912792619844	0.18774600458678248	0.1570662025224659
-0.462054744329606	-0.5927451519102671	-0.13295047368477805
-0.6178676298922321	-0.2833980780495838	-0.09185844328086766
-0.5431503227258601	-0.46915560083998736	-0.15708757951588392
-0.4201748440225733	-0.5896205411087996	-0.12196681505523886
0.10718701647497551	-0.004466559289874947	0.1269958555283649
-0.5435852000195791	-0.47025261182904315	-0.15707094074011801
0.42849816267680013	0.7469400981482466	-0.007359662912874537
0.3799017993162458	0.7617896064388104	-0.0005628528728455716
-0.48078005561755993	-0.5451097342563351	-0.14656157923454644
-0.36257041983607496	-0.5727323285859837	-0.10341130554972491
0.6236795623943188	-0.31811078355749156	-0.09337861067007004
-0.053998220488225036	0.3200711580952471	-0.03946133381746278
0.16015873531430092	0.3392480264625857	-0.10319815549039071
0.4095930911083664	0.7661855231876339	-0.008818637992808262
-0.6634496680193127	-0.2970013953625446	-0.09937362126980012
0.6497450362763038	-0.27245930008066255	-0.07452510991462805
-0.500428074938023	-0.3374772500032865	-0.10228268000148032
-0.5054773499727535	-0.5500143749327928	-0.14673859956826749
-0.05469400991481839	0.32123719681342067	-0.03698413426170336
0.5522588506851754	-0.375452294542773	-0.08615773145267505
0.38345204576442876	0.7713618342096155	-0.00431175886128761
-0.470883159991945	-0.3778270142596209	-0.11022545497252645
-0.6642204597304795	-0.29641579616322516	-0.10056807767571849
0.055347420119835095	0.33395406349537654	-0.09364989049168507
-0.5366218518853265	-0.4600324180282838	-0.1539962626917045
0.1327284230136482	0.20084698228607878	-0.13743316651625528
-0.5448578912053555	-0.4697807087165064	-0.1551067735588842
0.4185938395992444	0.7118336195051274	0.01860065941194621
-0.44950969205145075	-0.3848516283722776	-0.11730567286825908
-0.5297391707771482	-0.45021849924908475	-0.15241280495441542
0.1837516933390266	-0.24488498331169908	0.0839102952102172
0.15954057165400698	0.34021239036029094	-0.10315680774259138
0.15950930703355945	0.340248395399333	-0.10684004283453398
-0.42338887207321385	-0.5421516492029089	-0.13592659485497818
0.48008796024211875	0.7313374715807491	0.004176044517417926
-0.40633740758711573	0.5688350265408878	0.16997376638625697
0.04708565481562629	0.3364631103174252	-0.09503093084538289
0.22284850054609495	0.36758233295597675	-0.10760805009752875
0.5927460893298125	-0.5512676478912204	-0.11580787467124129
0.159215882169928	0.3389379700079023	-0.1069529697826552
-0.5724902209349075	-0.54307107938516	-0.1384272790216461
0.5136844688595095	-0.623452967875525	-0.08095234552269813
-0.0311729871859739	0.3194858743746437	-0.05510876068111324
0.4311799658352708	0.7204224737174648	0.002695498190676585
0.1833753095087408	-0.2452654302250576	0.08382301321968139
0.4543169308367554	0.7430504536326268	-0.0031981475333744823
0.13401811736496969	0.20018090992157783	-0.13691564443099033
0.5584859386493028	-0.39067083209725817	-0.09377641498298585
0.5444500565770637	0.6497328364066955	0.040526087338444886
0.5021401928418285	0.6447563792674522	0.04885905970320939
-0.40664544795744095	0.5679382029078549	0.1740223167724913
0.16555744531863822	0.06965864596660784	0.16169587568650423
-0.16060268549535317	0.6105158265768682	-0.08223790470304926
-0.32744677395838195	0.6651124807111686	0.08049484296760068
-0.538457985137747	-0.45964661488115927	-0.15623008939484542
0.04701168837402039	0.33630257702178123	-0.09584546233244352
0.591009129487962	-0.43822107069288846	-0.12299249085221181
0.5475761978251524	0.659444377519134	0.039725439619081954
-0.42319572076220807	-0.5417590320097206	-0.13524260270594649
0.5058808064520849	0.6548585078965263	0.03429485160654396
0.513644466593412	-0.6232869660239791	-0.08125796389703471
-0.5092824025438047	-0.42720151050255817	-0.1460957504125886
0.05500952234690355	0.3347030763804223	-0.09320614372354745
0.12196748830074347	0.23112362363999836	-0.13104557849680565
0.3798957381480785	0.762262030422428	-0.00005680041808499415
-0.2108745702112042	0.1971872162530672	0.15361224500617018
0.14283318835984823	0.33736153987629236	-0.10591396233040443
0.10613803769517045	-0.0052909101951324235	0.1272217687023823
-0.6630352508531177	-0.2961940019936242	-0.09901584010981743
0.1829071456706518	-0.24507668602989044	0.08502880121173181
-0.41990824557562645	-0.45700870397382376	-0.1249004695653973
0.11325103859048781	-0.25840519842227666	0.05425153876907185
0.5067920788369421	0.6543507633894805	0.034353096713828635
0.4184511658933394	0.7134952846869296	0.017504519739452246
-0.3276031020514304	0.6654563712779394	0.08145116136732752
0.22247144525360266	0.366136854034318	-0.10963958546274225
0.2224349527400504	0.36667375307730277	-0.1075837150233609
0.058522715786807546	0.41439264792310443	-0.13607984300884032
0.45222847206196665	0.7525942178767145	-0.007570280345506824
0.12514342958495608	0.2291672246868556	-0.13236662555882728
0.24112042637649428	0.39543026726123215	-0.12069846581439783
0.3987954664024904	0.7601458658908367	-0.007877866959242317
-0.4868201596319661	-0.5531261799627286	-0.14497541701425307
-0.4627901204012196	-0.5961213102665394	-0.1328759104528645
0.5002815886479748	0.6449097091513462	0.04880457358079247
0.12724430215435023	0.3366860407769874	-0.10598033560074013
-0.07857985669074044	0.00987307356548701	0.09690349013964838
-0.4207769742847784	-0.45553660648502897	-0.1235930400530131
-0.44846624022651754	-0.3857288958538245	-0.1178912440684887
0.6072234971404243	-0.2800774701615514	-0.06484666433481588
0.5465811495123911	0.6518541575240253	0.040831187300832024
-0.4981149245255808	-0.5240564595334047	-0.152208088011578
0.293932840551185	0.2993634510541741	-0.03070131446380358
0.37549248239713273	0.7851765342912196	-0.005113490665617143
0.6112644631729955	-0.2799918998935769	-0.061901039563833554
-0.4231355323173766	-0.5906316721490199	-0.1254801904868735
0.3826804765567968	0.7701054955092206	-0.005318383123010608
0.5494049364178624	-0.37464310562560427	-0.08530072936618566
-0.5440477057125254	-0.3325136199136369	-0.10871282020256001
0.07236353770292756	0.2095944640060182	-0.13990047503013867
0.5511040019817276	-0.4920914134902028	-0.11585505474050424
-0.4595624973840802	-0.5902102345501017	-0.13054205765170943
-0.11759600524334245	0.5740953175091135	-0.10659887642910039
0.591558418459668	-0.4383560507975425	-0.12318683164441309
-0.5075345364234669	-0.42501625748627614	-0.14496549390249713
0.15834470478715412	0.04494190990429604	0.1768671244026621
0.28994259875686273	0.29915646677085483	-0.028874149860458685
-0.48171399733470494	-0.5724221116123975	-0.13650392939880945
-0.44930325997217874	-0.38518590055643964	-0.11950693138935135
0.39868519201069164	0.761045554887559	-0.007740243355398993
0.5451755337338067	0.6513027301307873	0.04421142408737303
-0.4190274910032285	-0.5841676329334794	-0.12148383696978064
-0.4974925241820551	-0.5235780014584702	-0.15265963660834106
0.1430178603460154	0.3381621326771247	-0.10561883087335559
0.1273305696392409	0.16747545477781392	-0.12292081575696952
-0.47081286411944945	-0.5372155923469061	-0.1513393606261399
-0.5729631819286858	-0.5430263784859358	-0.137391298010572
-0.42416412359079725	-0.54195434408075	-0.1345440926370934
0.5077823935226202	0.6564380802013655	0.03729928184504154
0.1131952211618773	-0.2591402035624188	0.05592336993955693
-0.0556696241527987	0.3182814675584723	-0.04095653979056725
-0.47071767247776236	-0.38102030543190035	-0.1087309354639982
0.5220262156526245	-0.5050192047711168	-0.11106888833327626
-0.5730254106031598	-0.46430147612988126	-0.15375932201635675
0.16536016859140196	0.07032284820529285	0.16043673293638477
0.577516397914421	-0.34253437090173855	-0.0828184726883047
0.5517007893123818	-0.49157629529797503	-0.11726721726183244
0.46499736850862405	0.7387930713040028	0.0016016076517117615
-0.07723591003604063	0.010980544295125875	0.09971749562804515
0.3802515892621601	0.7610788795019614	-0.0018128782333865583
0.3768183579182267	0.7517248040610458	0.002987293472830173
-0.5746646073705158	-0.5409103068883285	-0.14074704784784534
-0.5369063631340679	-0.326064204183132	-0.10453838200125172
-0.22453968168504979	0.20667583252070107	0.14963521083962175
-0.41439208783916254	-0.6511514932320065	-0.08480127659872176
-0.2259777558995399	0.20658111251543368	0.15176087365887594
0.0733074884511801	0.2083150034919747	-0.1379334985956459
0.15817793986922024	0.04591839543717891	0.17642820293208272
0.24134901653316265	0.3955808258237815	-0.11987924652816709
-0.5723845829061753	-0.4641286188813984	-0.15321261611586853
-0.030273467967918008	0.3198766001927246	-0.05841781960331409
0.38535386600788624	0.7737686526391588	-0.00721594661973037
0.2693897680509523	0.32024234102725185	-0.060018562605593476
0.5597127902688217	-0.3655695361445692	-0.08076404683190844
-0.5068105177791665	-0.5503299008391687	-0.14849185283544858
-0.2207422896488209	0.19632041851857504	0.1605408144452578
0.46455200523475193	0.739159716232449	0.0009385749057903807
-0.5432291396692804	-0.3311587967984362	-0.10771230136367793
-0.49893882163846554	-0.33422526009953585	-0.10333969590003379
-0.4866045645082233	-0.5457584272722242	-0.14723592588122295
0.0580399312448931	-0.24191301217688602	0.04257925408682876
-0.16206599712790112	0.6105537632377607	-0.0821658411994191
-0.3688582450980477	-0.13471912549592355	0.11639552419914703
-0.2136143955134041	0.19861255017576887	0.1536719321180739
0.12697445345970793	0.22935216426437766	-0.12982859394986945
-0.4187699666188566	-0.5849658266606029	-0.12086246750977912
-0.4159204403248264	-0.47089122640680686	-0.1272563074528656
0.5462292374654303	0.6561536200949007	0.039870422495095606
0.4815603272046678	0.7307170587106128	0.005318461539548338
0.04636988343355158	0.3372726416000649	-0.09557811922826676
0.2052538087292201	0.339347685096681	-0.08722495979555246
0.6501470648631066	-0.271969692030222	-0.07226670902526591
0.42854178738920823	0.7457900652496984	-0.007903995569319196
-0.3693890815475901	-0.13469306449051288	0.11590501113623984
0.6629239189804101	-0.27958536216887014	-0.07564877810580933
0.5865105667706774	-0.2757409235170119	-0.06279831691662602
0.014263643731992515	-0.7538300087290764	0.24737152843756174
0.5779957551783466	-0.3421591408353393	-0.08390043745117724
0.5920476642584659	-0.5513978334597268	-0.11722428127360486
0.644810026220715	-0.274570393350126	-0.0714402667252678
0.11380347170049308	-0.25798835671523473	0.053876283387803904
-0.05820717036896723	0.3147778906444795	-0.04028580350305719
0.4085810730860776	0.7661437259510978	-0.0057349219704833755
0.2491450903621209	0.32729264227933963	-0.06484189124436299
0.5142338349164451	-0.5406231642777042	-0.10731056364519759
0.5865297714703677	-0.2764908807697462	-0.06252437917611837
-0.5394315277806562	-0.3263278854079489	-0.10028172705405557
0.18860105780633304	-0.3962987843491136	0.12424167604147704
0.18927824416684932	-0.3958059353775766	0.12363533788665532
0.12285237094500234	-0.4107690774654542	0.10096905546532223
-0.21318680255276018	0.19722921539244995	0.15217019984291388
-0.5781829169176778	-0.49998843103833945	-0.1499755658228082
0.012104371767072391	-0.7542738645557764	0.2492342627812199
0.3998447531993021	0.759854494986093	-0.006043427715971745
0.12696194188762122	0.164568262182281	-0.1214385007744336
-0.42031025509773884	-0.5901433606431069	-0.11911715142411604
0.4290443414256208	0.748041410801197	-0.005046418750154187
0.23014777595183078	0.3339397638609012	-0.07767707805431344
-0.619248128111191	-0.286619666962063	-0.09282983978189124
0.23106247519529444	-0.20551537713605278	0.07646792935616359
0.2685286392600015	0.3203025685691583	-0.05898142123443854
-0.42752767079074044	-0.4040255519722325	-0.11616791502912108
-0.5715433895596548	-0.4530531684215855	-0.1547285144310216
0.5408506265484729	0.6130195815826358	0.07566526597485002
-0.4702287766628812	-0.5367848104982117	-0.14895401562657895
-0.4182045984722305	-0.4706682628581144	-0.1272435672868113
0.58745941376097	-0.5484384909419777	-0.11459598939275159
0.4515639919883458	0.7521159695871479	-0.009859102292828598
0.5589833041500428	-0.39029730090293197	-0.0922236947188831
-0.6317737459232741	-0.45958354042413463	-0.13614604341850314
0.5055746334118973	0.6563880929789971	0.03830549930590303
-0.5566806933005529	-0.47725085331792366	-0.15618806212091046
-0.28007850880766544	0.04672350133778656	0.2472122899485416
0.4329874976725951	0.7222111116246148	0.001699331151265923
0.27975520009024446	0.3375093415220784	-0.07764308646124157
0.5409278348843645	0.6132215998036209	0.07546094365047415
0.4192098914326004	0.770090275569318	-0.0127198550946605
0.6104250511865864	-0.255646322657942	-0.06668250635378434
-0.054598008128349335	0.3162343835002739	-0.0384949354822128
0.17863095104222035	0.34069064998546117	-0.09772130084082047
0.5917102985074829	-0.43778060882969894	-0.1201572391956763
0.230441961660731	0.3342033039834625	-0.07767001483900596
0.05731421026688496	-0.24365610849302446	0.04269403244625274
0.2308686445789097	-0.20486312350316488	0.07773170795132776
-0.5733969942200156	-0.5417383283179961	-0.14209428575085847
-0.5776294418259136	-0.49984583281012723	-0.14978491623176865
-0.5949519474882012	-0.37922700099131346	-0.13858791807406057
0.4503316429651298	0.7772604916409352	-0.009789752702463694
0.43088819700601155	0.7507468123237796	-0.00803486326959378
0.37639577231456234	0.7687679034548225	-0.003012128644626371
0.5351983858576538	-0.37287775359445335	-0.08128333631486645
0.10595510357638654	0.11720578703111093	-0.04821639510633927
-0.28407372687578303	0.7733026974281	0.04738944474409965
0.10814839523914473	0.12255974502810789	-0.05450900145582031
-0.40856585531253214	-0.4047488998366072	-0.1083967071169773
-0.5061112797649403	-0.34306866716716916	-0.1034653234286818
0.3767501088743885	0.7838273138811478	-0.007318685902613296
0.14264579671326155	0.33625372464627484	-0.10610731031573238
-0.028039455917995722	0.3207682520083854	-0.05476106767356932
0.1259214560051719	0.1648806772229272	-0.12366741124159428
-0.5567869916047345	-0.4776566340585408	-0.15553594129542495
0.3844199613751872	0.7827956727319509	-0.004698760573121865
0.6350222247240733	-0.27153816614274057	-0.06008421161987226
-0.11855118704444378	0.26777752794312937	0.003986127475133876
0.6109556785148579	-0.2556332065684722	-0.0666159702495687
0.2719757731874216	0.36432434208528947	-0.08353447364316845
0.05310911677535068	0.333900366369757	-0.09290850610090037
0.5867759103416031	-0.43919577564604056	-0.11804624020465673
0.23381831825277846	-0.12805788366643633	0.09011222788628045
0.41873793246449487	0.7702672198052603	-0.012556383292382537
0.5163332398892992	-0.6242489764366954	-0.0823791466045042
0.4627198445463768	0.7701375046372848	-0.008611886054227982
-0.4409216467980628	-0.5365617477075487	-0.1438352174939196
-0.4859552308674057	-0.5464244263074429	-0.14615448938321615
-0.5036435149566271	-0.34392364168774603	-0.1045462339829301
-0.048945148822312004	0.32324894190860615	-0.044038506264682364
0.6392354027123678	-0.3298300990682369	-0.1000473923244756
0.2805048424183739	0.33855569027965143	-0.0740999709198443
0.048896926939796956	0.1975149851913211	-0.13035279377961093
-0.42256827640388206	-0.4643944661040788	-0.12846176450450975
0.5866048508569469	-0.438856193522701	-0.11948608796564521
-0.3525849207254565	-0.5836365849425973	-0.09583008899218835
-0.2775651167802095	0.04464667843833704	0.2431165663375415
0.40221259292910866	-0.26308370268332926	0.07173958144327644
0.2797267571246922	0.33897194306005946	-0.07721700380268572
-0.4595744697860607	-0.5959036374591117	-0.132108162369798
-0.4130657329299963	-0.5704352978846662	-0.1253192414727978
-0.42365832977237	-0.4654136154792825	-0.12892891117528948
-0.37007159756405444	-0.13520661591727604	0.11735672381788341
0.16070214947800782	-0.2914219100351714	0.08263790746226428
0.27223756066680616	0.36425235805084183	-0.08405227735993706
0.15818309889586296	0.03566468370063415	0.17205936064895078
-0.4789022850179163	-0.543194809659913	-0.14512861932582344
-0.5101789207899657	-0.41464669055927766	-0.14396416766863893
-0.5494388121992247	-0.5251758828146005	-0.15083528721787742
0.12069913199724029	0.2301006565525552	-0.1309585875801008
-0.6314933266553637	-0.4588355055952897	-0.13667000111743266
-0.11760886572745141	0.2655564453731997	0.0019250873456998691
0.17097494238684627	-0.3146463423533677	0.09313234377419351
-0.41541353638605244	-0.6519636675170114	-0.08509052979992233
-0.36100785669965296	-0.5124649419250012	-0.11799515428805359
0.12730164623036633	0.3369705840154626	-0.10753566920591802
-0.6547016006264158	-0.4193207085043327	-0.13079316858159162
0.5449965668146949	-0.35196922903455724	-0.06925137750074663
0.6648865412949582	-0.24210315146266465	-0.062325360454491045
-0.41554050440867346	-0.5666045324375627	-0.12479895901439124
-0.5843824953882035	-0.28878708782488743	-0.09542097845400511
-0.4222667737290671	-0.4650567301288698	-0.13021530398144757
-0.048915529192833804	0.32356378479632175	-0.04422397133114331
-0.10475017745647827	0.2850052009655436	-0.011797678342831816
-0.35142223643037107	-0.5828413871083739	-0.09627216820867356
0.5354024171751943	-0.37253168592368896	-0.0822211193512433
0.6626879203506025	-0.2783965925732401	-0.0752780540922835
0.664832764385948	-0.24380442324644322	-0.06203882922788512
0.5115072718742297	-0.5434534222194175	-0.10679248882871553
-0.4122349128161395	-0.569761529735477	-0.12386817489812349
-0.43856402773745595	-0.5373957973835944	-0.14338198833559893
-0.6454479878934571	-0.29000751355440385	-0.10101824182736022
0.6285074304894674	-0.47028766993332277	-0.1275249810062672
-0.5981288760758491	-0.3786936701445774	-0.13799142444568188
0.05908375602621841	0.41285474778736053	-0.13945652053734572
0.7203324964384961	-0.23475553531229895	-0.041488982056512434
0.10934963242475634	0.10860855107842346	-0.038515427571020264
-0.40883987128387766	-0.40375286999441135	-0.10720024195981573
-0.21980266674048152	0.1969637250113358	0.1625124927068047
-0.4298487752250497	-0.5382338272206874	-0.14030227870598247
0.10692860704143667	0.10964666266340911	-0.03984216733180051
-0.5908891040114113	-0.5098246430087764	-0.14309168503726505
0.5449357313873732	-0.35179304488488816	-0.06941580735307347
0.5457402390295947	-0.31662417109697205	-0.06385973293233362
0.24929807780364754	0.3285970578135012	-0.06552309228186867
0.23147354114838437	0.354121296114388	-0.10244996491724236
-0.5041047460736903	-0.5048023351394296	-0.1558527887628284
0.5879795033682862	-0.5484836083533808	-0.11742513472079168
-0.536402208815463	-0.3318020118009988	-0.1036658410572365
0.5499316418343602	-0.32365686263975774	-0.06344877958653401
0.635053414669083	-0.27177042111123617	-0.06017219473234675
0.22194281765016213	0.339087048332404	-0.08982999501984919
0.6046102944671091	-0.3971149321826838	-0.11722708394321497
0.5211301613591991	-0.5048706184749951	-0.11121460831495669
0.23264598099568556	0.35391618938544955	-0.10262027932476919
0.1664761899345703	-0.3733833327791332	0.10709866235402608
0.2427404669458593	0.3951381540148359	-0.12078114557091482
-0.4244856152829486	-0.5901276081665914	-0.127105642073324
0.557375788090239	-0.3909763367059123	-0.09521722907183988
-0.11966689875833182	0.2504177928975429	0.01385198326805028
-0.4813769497456612	-0.5724470163466211	-0.13535146076750748
0.37325628815291273	0.7833877286551942	-0.0037444453114836244
0.5566938651814064	-0.36026155034580754	-0.0792108891554734
-0.4445869447915431	-0.6505709223652028	-0.09053046172951937
-0.36069913004299536	-0.5127375708948966	-0.11795800390314509
0.6333827543365291	-0.26645646377957916	-0.05991223315462693
0.16175730735092766	0.33682657216532746	-0.1052072215193601
-0.4626851946478148	-0.5948349761837298	-0.1289978364623988
0.4507080043411645	0.7766098987806349	-0.009615511338870394
0.4529205063293732	0.7555975427185317	-0.008019008604507835
0.6345138475008625	-0.3307998590968738	-0.09866932715181646
0.23368950484814627	-0.1278661474391954	0.08908351531957275
0.612833817059848	-0.35357705134761624	-0.10430446506906844
0.22402521434471206	-0.19592085745820548	0.07230635474939356
0.14673235018897446	0.3709854278628966	-0.1181645854286595
0.5037801010346054	-0.5320315135577688	-0.10258751131073345
0.5598373483769873	-0.3990951502595301	-0.09964686172802112
-0.4712060077957445	-0.38308580135619996	-0.11604988236890366
0.6394273489357926	-0.32968116095053085	-0.10067187439401837
-0.09151681391935013	0.29934841430491854	-0.023740627698132996
0.128581787650436	0.3522861285484226	-0.12866887130228133
0.1698944666183202	-0.3129020739731682	0.0919411257574414
-0.05475800720684649	0.31317718797793626	-0.04022308084547283
0.20783160303763568	0.36036974078977946	-0.09477053494358903
-0.6350568803710168	-0.46261129784182775	-0.134150221545077
0.5174059207889783	-0.5940546771727149	-0.09232935429279325
0.16652859312738535	-0.37376653850568337	0.10852877675994319
0.46525220172464604	0.7372922924241355	0.002276737700604438
-0.37436277072977625	-0.506921722222635	-0.11694915958586913
0.03869265439564943	0.33030681815539653	-0.08825776069009016
0.668805635004877	-0.35539832650661973	-0.11236739655418976
-0.10348469289051453	0.2838575125155111	-0.014756489530031294
-0.6499627732157539	-0.48674968113314776	-0.12324276984495441
0.11221915239030116	0.20174817611574605	-0.14073264376642544
0.6048413523209296	-0.39712092007653255	-0.11686301314166442
-0.5018102122788383	-0.3400572054587656	-0.10207987141311903
-0.4233009573710762	-0.5848450070478495	-0.12199281789660694
0.20650117734608744	0.34081191047179504	-0.08529868409921755
0.5868119334547205	-0.32856425138071643	-0.07926406740338453
0.5907521825278599	-0.2887603337628851	-0.0571188250138631
0.6130767529933006	-0.3533208418390506	-0.10375950527853063
-0.5364320927767483	-0.31209273498911394	-0.10449496902473883
0.14305797018418243	0.03709694440397456	0.1703989724072991
0.48007939695435964	0.7326411207448867	0.006242742316369688
-0.0777752573487091	0.009371384903391032	0.09578905956800496
-0.1595110820815942	0.6105500834886749	-0.08106709534120973
-0.4327995563515474	-0.6785315357048644	-0.07961691806385031
0.41792262555843235	0.7129407614985285	0.015705707619819816
0.24823747039256736	-0.3173797607342993	0.14233391730691136
-0.57537154478465	-0.4577816248665279	-0.1519288036599982
0.4279775773800645	0.72315103349328	0.002666432377941911
0.11651671801184706	-0.2107753192141468	0.05397303663607145
0.0855012856715852	0.18527176879840213	-0.14015014268001375
-0.2843113451078118	0.7735982465089078	0.04561546174517504
0.40243644345963075	-0.263273760925026	0.06765553889884768
-0.12225678042559403	0.2508973984580153	0.01520550403261033
0.1581088285077911	-0.2916094958522629	0.08189740430394428
-0.4882689276480608	-0.5639128687578988	-0.14486730266428574
0.5568017662891067	-0.35737114713476786	-0.08258570051985736
-0.2020143682441257	0.18849798735641546	0.1593383703843195
0.6339217650689669	-0.26620503531530315	-0.059492983059562576
0.5957528551345882	-0.5505711001501163	-0.1147501680899161
0.22151933624219305	0.3396806914201291	-0.09046516849993236
0.5575740294621045	-0.36172166641133535	-0.08160032632383035
0.08463350527940795	0.39673015080108026	-0.13112428230079048
-0.467358286641084	-0.37949810974405473	-0.10828269463811241
0.5591947159943865	-0.3572789260585777	-0.08089064721941769
0.560916765572036	-0.348672926290865	-0.08202262540673451
-0.05826721311065651	0.31428620045717903	-0.04269030423142698
-0.5039070729710873	-0.505518363220261	-0.15552621116307372
0.3780927571280879	0.7685043924204625	-0.0017437021097771923
0.2312787760057063	0.35428572689139753	-0.10129373642485635
0.4982177836189087	-0.5101266157130923	-0.09740387068638175
-0.07252695807971075	0.3018890427095287	-0.03623873212371858
-0.5901968106255993	-0.5105227897016772	-0.1448009939017324
-0.43087666427865556	-0.41101619172403114	-0.11249798396769076
0.5619804719191669	-0.3947867735504271	-0.10098413390106643
-0.42983830632889447	-0.5386736897112464	-0.1397033886683297
0.1162760163479199	-0.2106639009577889	0.05380487204113292
0.4162078297397809	0.7860748867063169	-0.010412734512681661
0.044040008269968185	0.7008629418082286	-0.12723791718558766
-0.5052671469475986	-0.5473093366144232	-0.14777923991612749
-0.4784936308366333	-0.3707054591555518	-0.1078457131153296
-0.43966784838445877	-0.5373494221191858	-0.1413628865057713
-0.009660688132170078	0.3206533438778484	-0.07067052291171853
0.10755912209495984	-0.2667777761601881	0.05324168540445799
-0.5848292398029962	-0.287903302412349	-0.09549533762077483
0.2273076978967272	0.3945883788589053	-0.12330034183509443
0.003854465388104846	0.38456174486719585	-0.11729606563869088
0.1290355903589106	0.3531750041086049	-0.12853821494230475
-0.4319064332711768	-0.4106133734855388	-0.11244151537472517
0.5515710861905636	-0.4951102729622783	-0.11530234938142478
-0.40948862106862016	-0.40520862866104246	-0.10802355483316896
0.6581976961896538	-0.2715933514941942	-0.07216182658455608
-0.5697643860742203	-0.4600371368158734	-0.15447082054792294
0.583751560062253	-0.4419213022179514	-0.1179602743461242
0.6238504124670637	-0.3186552036093343	-0.08874499931935523
-0.5487921412720064	-0.5231733260488932	-0.15018353306115523
-0.10426965818255253	0.2838653526853437	-0.011142214399461281
0.12173241427062542	-0.2651887073420341	0.05813747794566313
-0.3791071625617896	0.7898448143343735	0.10808211522910914
0.5170856440741654	-0.5454860254862325	-0.10792157573627524
0.10828394760063831	-0.2670332572448106	0.05293774184075316
0.17909581316998735	0.3416220456576213	-0.09540401106980761
0.03759986398671749	0.32964106712281144	-0.0884339736901228
-0.5521656277094972	-0.3069298298065151	-0.0951092745733017
0.4543900565087578	0.7594502400993937	-0.011692503993060288
0.5461473071987494	-0.31587161675097536	-0.06306642495906123
-0.48778287949286353	-0.5645672516822529	-0.14554642005805818
0.05922195357814233	0.058658833659055894	0.1746491257852644
0.5451140827706711	-0.35668894487424857	-0.07178163619663813
0.16913661368786162	-0.3133246877597749	0.09372146266123578
0.1566444690659345	0.04261758025193176	0.17440394942092716
0.5156618992562253	-0.5403042901455064	-0.10777980171161623
0.12231727103835663	-0.4098761263151915	0.10200921747469334
-0.44361394156640427	-0.667442490041805	-0.07769037032352988
0.6281498656858606	-0.319415637609957	-0.0925425335549591
-0.47698558845492056	-0.37197517288648446	-0.10963692683279846
-0.48606034488776734	-0.5729004870765675	-0.1381392561603391
-0.5001004873968842	-0.5245718042541816	-0.15088521097939228
0.5181782416356655	-0.5450147274167495	-0.10777189406464084
-0.46310782982025994	-0.48425895212314224	-0.14651167930985334
-0.32886189440220953	0.6667050893782026	0.07986145259621377
-0.5518780801295233	-0.3069369130966652	-0.09877503774297551
-0.5746990322535572	-0.5551290183035499	-0.1376263539867284
0.0016151126205493332	0.3827785349087182	-0.1145760484396027
0.6657726664278468	-0.24185230458520526	-0.05989724746489855
0.12379741331176328	-0.4112827365847028	0.10096962482720738
0.1580384082652571	-0.29315330514004767	0.08076112593177565
-0.6433742217664272	-0.28984074266575854	-0.10079596950784968
-0.5526861503557844	-0.30880006435054036	-0.10074527296710563
0.24220105598677402	0.37693566027620695	-0.11528211111651003
0.5601809211249291	-0.36662260215316045	-0.0797235215738445
-0.6550307946698015	-0.42025613797842654	-0.13128206779231774
0.5023943980094165	0.7506257187093157	0.01867461851677176
0.12698966664873607	0.3502339850595951	-0.1311786999328234
0.1541289417185293	0.3545338707047569	-0.12018013156416985
-0.5759647706722604	-0.45761797729704107	-0.15202261133904396
-0.5882005247119457	-0.38458890846339067	-0.13624150465183024
0.6296447307307231	-0.47124258640215605	-0.12740699396523866
0.5595513132400176	-0.3986670220960477	-0.10208207416441606
0.3761461469529037	0.7695137853685188	-0.004843024989210277
-0.48112671525068434	-0.3697431970906918	-0.11018349475956492
0.04480123095511926	0.7015678953242281	-0.12719750414438805
0.5913361183350619	-0.5385843096131101	-0.12003910633238962
0.19669339372277628	-0.3113120531645553	0.10418455806544781
0.5167737321551715	-0.602513173472884	-0.09329682725773975
-0.4762055718739771	-0.6894855627483396	-0.062287393744736096
0.5167190876206815	-0.6033553972487172	-0.09131305894268356
-0.5582109033644822	-0.37991268371123327	-0.13092613016294635
-0.39380903335936013	-0.44608090267668693	-0.11003764116401883
-0.5120772205384924	-0.41637152658845644	-0.14374866787664248
0.41481553211033506	0.7844155800595202	-0.011888139959882176
0.657203397153151	-0.2722344970846727	-0.07480621002054116
0.15193839444764604	-0.29342148830736264	0.07643418055530676
-0.22660580996652924	0.20593784245057697	0.14888380909124846
0.5493944190159323	-0.3233629954149339	-0.06277020173242671
0.7205074387251681	-0.23387583681128718	-0.04116613167098212
0.08512489411269256	0.3967925443005991	-0.13096579372567
-0.4278778246713091	-0.404913643918113	-0.11429246994417769
-0.4462660741704822	-0.45997498086212424	-0.13586443841767837
-0.014645309300906934	0.31782451365890774	-0.06631333258163855
0.5351285739083369	-0.49649194260760354	-0.11375967638740092
0.24956131395686076	0.32395903565314677	-0.06486716887286695
-0.3786265346512279	0.7882232587429939	0.1072154536829697
0.19888237006365098	0.3978745074016376	-0.13452513075819264
0.14138162074257743	0.035390527177056735	0.17021918708617526
-0.46845876847553597	-0.38530726859062026	-0.1190069166553816
0.5966640942372106	-0.29124407037652644	-0.0623058912299037
0.2687416348517813	0.3136425525580555	-0.05771651854647889
0.23347189670481186	-0.1271358462545037	0.09038007325861035
0.5391703309847944	-0.4932030084309645	-0.11580929656075427
-0.45780300479265285	-0.6671176999590644	-0.07739265932361097
0.15023987691128599	0.37431135776403174	-0.1131907558567327
-0.6089350068130268	-0.36505491305533716	-0.13185536704058645
0.5939752062667704	-0.5475023726085798	-0.11687537948671878
0.08478627362415721	-0.2511839060839826	0.0409712630773366
-0.5923645410754783	-0.5104630990455714	-0.14112434059860995
-0.5068607337614577	-0.428251713147026	-0.15171175347508445
-0.6485679190538449	-0.48705820798736277	-0.12280074138140648
0.560669903607478	-0.34917751039577966	-0.08402926872954841
0.5438032789507132	0.6419376962808527	0.04753309409266192
0.5467801325224771	0.6430465076880574	0.050141590668629485
-0.42301768780585003	-0.5845993717691828	-0.12475292183274209
0.1511304029477965	-0.293144077385524	0.07651981858928132
-0.6071320629846384	-0.3658742989143325	-0.13456913787820354
0.22394549043820636	-0.19637307916527996	0.07374521577141477
0.5356879595037841	-0.49670520415653735	-0.11284004826753478
-0.21877657986296042	0.19535062528358532	0.16087173419258605
-0.009981960633321667	0.31986038342861217	-0.07399677658126705
0.5847584794979515	-0.2746028254878997	-0.06369158947589651
0.3833705294326335	0.7773490769687267	-0.008203849344859827
0.21281765507838118	-0.2946226808302078	0.10950180808380786
-0.5718393143144327	-0.5538628473795157	-0.13654390134872718
0.3749200981335284	0.7859130300881202	-0.008740351851260209
0.05150295340036042	0.19749474460958732	-0.13159860009714025
0.06561524162395146	0.14641241465361277	-0.11813971408573969
0.09226531411211061	0.13999571602630193	-0.07808149124620542
-0.4853048463120134	-0.5721291845889676	-0.13989939100259205
0.5224590070040179	0.5968418626709294	0.10475384898462001
0.04899119868218021	0.2101479606125604	-0.12790404519291135
-0.41315448759894086	-0.5046775455529309	-0.1365807148014984
0.5012714464657639	-0.5301270411613003	-0.10276884292300915
-0.09122317186565973	0.30085055314159775	-0.024897952208061132
0.2683393323561698	0.31284545904204397	-0.0572657570423432
0.7125417409204684	-0.242154748952629	-0.04367196748665626
-0.5876685706017896	-0.38618610735604914	-0.1376890322829446
-0.44659068893483567	-0.45993526872531093	-0.13590182170013207
0.06576047925928728	0.14678457461806282	-0.11808547557525331
0.4622752924115921	0.7715753788812852	-0.009497116245834577
-0.479169238718264	-0.5438384420099339	-0.15029050337858993
0.16522379285928607	0.353744231779474	-0.12045021149754556
0.5008143123045534	0.6419267862340138	0.050565790050446244
-0.45783644439275095	-0.6665799751528093	-0.07675915627941855
-0.47300188283592315	-0.5836576684638094	-0.13581441055069182
0.5907700087174338	-0.5375084073099041	-0.11868122513397393
0.0460310275874082	-0.20298057945588704	0.04374355909290796
-0.46306047625577246	-0.48417150746262533	-0.1459786179430749
0.10788337104888349	-0.005227897848806705	0.12450240855782453
0.1132274346163326	-0.2753033201096852	0.05539704868904573
-0.12585104141704007	0.26599076251495335	0.0041267300304698214
-0.6360631225804837	-0.4622040104237446	-0.13401811515870604
0.11386545792199337	-0.27549907723984807	0.05570121502299678
-0.41808254083492896	-0.5749457101080997	-0.12768536462404817
0.6080649109209486	-0.3863957948571496	-0.11403523864052154
0.6662269632097673	-0.3568308994156624	-0.11337405663863948
-0.10398187049496128	0.48445586555793385	-0.11524507472457307
0.06182391175447	0.33666902460420645	-0.10340249882738255
0.10846343399273445	0.12063391403541972	-0.05584944762039017
0.39090823913574574	0.7903072501952658	-0.009827116386939644
-0.35491857989888986	-0.5715986286225049	-0.10304101308052249
-0.5722227622067065	-0.5577907976700961	-0.1370737284332543
-0.6059246177467503	-0.3665699466707397	-0.1326995609949658
0.1090153101374991	0.41354157472505476	-0.14132044028162544
-0.402566786551611	-0.4500760462432262	-0.11400585372634986
0.40591902132442603	0.7657784606104181	-0.009353756392240797
-0.11846082672319652	0.25886889518315076	0.009527214910679474
-0.5324893375358033	-0.45334347266648106	-0.15424712926196757
0.12900437290803085	-0.4449064289724245	0.1291517745208025
-0.35267420822746837	0.6082729668840139	0.10575600781490534
0.4554999401352045	0.589930868844515	0.09169023181597187
0.13362678554309454	0.20181505523964177	-0.1344645529719638
-0.10005877589297826	0.3028927376783984	-0.025878251745889258
0.38999814517389836	0.7909777044034427	-0.009431629383074973
-0.4755924644941404	-0.5728820938947807	-0.13825253626585116
-0.4187260350887127	-0.4464582389078995	-0.12573878051118173
-0.42074370034030617	-0.5794792112406494	-0.12743961894583197
0.49312037726807517	0.6009175297033574	0.09486990733785537
0.11056361736710771	0.33652408343525736	-0.10988707368198379
0.6624621054510276	-0.2812980190241703	-0.07449853296419995
0.5994640300821957	-0.39077664670064816	-0.11578949450109013
0.5448799683448825	0.6449658288189567	0.0472053545744508
-0.20816553943703994	0.5346541905536185	-0.04248607644335219
0.24825595813438556	-0.31722004478454346	0.1438555012432157
0.14513073247080382	-0.20110679346078794	0.06019302564099004
-0.4252380749464306	-0.5635650277168646	-0.1273001665310767
0.19600396933793243	-0.3100701491048508	0.10543878514562958
-0.4302539237642324	-0.6795715930464101	-0.07852650230514518
-0.5589702083947778	-0.3787440131884407	-0.13224713273158217
-0.3783315428625233	0.7900430181191546	0.1049176630402604
0.19567749171838436	-0.31220120653072303	0.10680555754785866
0.5868870486019342	-0.546659635415324	-0.11446591910664176
-0.5449934345552054	-0.332549188433049	-0.10613640147785032
0.17737896163837594	0.34017966861018867	-0.09892723439728111
0.45451800392361413	0.7494819619725867	-0.00840587332383452
-0.4425918928030935	-0.43394291207964564	-0.13150983351381385
0.061777625651482815	0.3363310040515336	-0.10350656673712423
-0.413423014980817	-0.5050868181972482	-0.1360508415668995
0.538559142153469	0.6156401232413045	0.0764628443464557
-0.418113688628737	-0.5747797026342636	-0.12677219890061953
0.3832348593394235	0.7783485309634417	-0.005325944677565678
-0.10382623856550081	0.4841627953518945	-0.11554780706396983
-0.5727371936186975	-0.30507480601592024	-0.09608191424001566
-0.42176375387343257	-0.4821741177948354	-0.13271645595934436
-0.20760057626332762	0.5341863407280418	-0.04195057677947131
-0.41024727444310655	-0.4286866446744676	-0.10952788851395023
-0.42552488273484096	-0.590399433350162	-0.12305066359347758
0.5577937533583234	-0.3289657138092681	-0.062409470927552516
0.4701611791420361	0.6482175128277665	0.04430797193364428
-0.5406733919096391	-0.3323047820050333	-0.11265686320328976
0.7127790070875538	-0.24271436718067166	-0.04249720147914622
-0.41006948569820595	-0.42880488940682604	-0.10963614127015767
-0.012293914981557684	0.31660597987348954	-0.0704193444541527
-0.42561296510280283	-0.457454807470873	-0.12670698425193508
0.2515972154071505	0.32081817142315644	-0.0673020138351271
0.6086557698959792	-0.3871387223428396	-0.1147168344293863
0.4539436458641668	0.76108406506353	-0.00852848057544768
0.5199614928798673	-0.593692386659805	-0.09216686643687108
0.2702273757309903	0.32228735262925273	-0.058827656045383606
0.0713485066452745	0.20909310653436156	-0.14143713408846142
0.5436712204826889	-0.34034983532973295	-0.06978536418443783
0.19764961457613603	0.39885354513374105	-0.13013073250389673
0.04431895492980248	0.6998194758542249	-0.12544756287919911
0.5224775834483976	0.5974214814192474	0.10605826038143158
-0.5244300503283742	-0.45502861392421345	-0.15441847118581029
0.5933764429430352	-0.2905340217707888	-0.05441433841463361
0.058552472569006433	0.05872235076437222	0.17529686590521232
-0.07050143378998008	0.3002661563717392	-0.037219554905316136
0.6287252271067105	-0.31959186861888145	-0.09456120561182155
-0.4250229146365243	-0.5624997086674683	-0.13011230146097208
-0.5761480957356699	-0.46241574448370615	-0.15180463375952089
-0.6136831421151793	-0.29742756914552737	-0.09394743584464946
-0.4419318060230685	-0.4338414836940059	-0.13161134952299497
0.6647822999108867	-0.31559961789731505	-0.09385710415143204
-0.5555895110288405	-0.47800761844470413	-0.15444442158438185
-0.5366884963124487	-0.33276934788530926	-0.10298789216046574
0.5253542972952433	-0.5072413705101468	-0.11038112591309483
-0.4430053883786963	-0.6513734190763234	-0.09243068268603195
0.3000693587069413	0.2959833313843839	-0.022726741359855036
-0.046488500314683566	0.32504455631565005	-0.04169067931307171
0.5959922752888297	-0.2919062111098616	-0.063137501806405
0.5486859586232288	-0.32321083813872753	-0.06689280971867681
0.717082962043866	-0.24510823221866948	-0.04519192842258235
0.5042869211840074	-0.598379918091312	-0.08754086107658161
-0.40599321384523746	0.3315888717305113	0.17421015301435427
0.13780918433161254	0.34182640341786014	-0.10883209574351224
0.1293501355903669	-0.4453463202731369	0.13163134892127815
0.4135450908659151	0.7665419193744502	-0.008570176933139946
-0.30122861178610294	0.21730137274224087	0.18869513515620603
-0.419003459289395	-0.4466889787536482	-0.12577956208807944
0.24804587917304588	-0.31718402486322733	0.1411887017930435
-0.5090512568074272	-0.413634502122333	-0.14359627725360838
0.609443108744044	-0.26381241250948884	-0.06395012466190014
0.6140059597514413	-0.277092888532348	-0.060414626314509924
-0.5476144856536018	-0.4676685902758705	-0.1562050466623932
0.5782910983822651	-0.28106299669766105	-0.05667134108062858
-0.6395588221983124	-0.3427933364780906	-0.12877016216812573
-0.47641274668656164	-0.6918619529769893	-0.06133227935504897
-0.5706095793835322	-0.4687890259520416	-0.1536298673536071
0.6323902222174678	-0.3588433093138163	-0.1111338735883931
0.5539579609538215	-0.3720978527565139	-0.0853483074890348
0.6151946933572415	-0.27965816020427864	-0.06103665848069751
0.04826783477540944	0.20980182198545494	-0.1295595859467857
-0.40035278372627836	0.3297780050440848	0.17352609147271778
-0.3752763139354915	-0.5770528622373023	-0.11096505489285563
-0.47965066302503284	-0.57335892331339	-0.1398709473550569
0.09243148284536323	0.1393060988693853	-0.07827762398812704
-0.42071538628398214	-0.6661224912726093	-0.08327685742797025
0.5086350138905525	-0.5371206216252414	-0.10257041495591443
0.5671818145689796	-0.3274036144739795	-0.07404835363233397
0.5422874795589675	-0.35685719976106195	-0.07051383898416477
-0.38336489959868264	0.7320397028703851	0.09178520639856658
-0.5869357970674676	-0.38278725426750615	-0.13866685836097392
-0.6501380629069756	-0.4853174572940902	-0.12058030401713797
-0.14029187692725603	0.225692688814166	0.05508576841778076
0.257330189180604	0.33245006565840557	-0.06556930719326896
0.47060504769083933	0.6484992458140583	0.043624593680639805
-0.4741562227039371	-0.5831851216944398	-0.13651045052862812
-0.4224819991689558	-0.48165679419981283	-0.13143159765531875
-0.5404129838102757	-0.3099822296328266	-0.10417847421843116
0.0032025204304426754	0.38357818194238713	-0.11845152355985702
-0.6071128091235739	-0.3597090863389787	-0.1307107452358441
-0.5666888336623717	-0.45321471016905607	-0.15140491838405087
0.5701859090439023	-0.34630924600916546	-0.08514048043082849
0.6098368674438617	-0.2639361065863936	-0.06438702147415376
-0.5061492916814802	-0.34581048181292545	-0.10322717850630277
0.10698363082625251	0.11026332679431913	-0.037232126189315096
-0.5344234717108367	-0.32071217196069723	-0.09725964637174167
0.5859518065732413	-0.3260248038016874	-0.07751207220854794
0.43113676182423455	0.7508765714582079	-0.009988847121641367
0.6092425797350283	-0.25980200182026014	-0.06373564179784492
0.11001612965134612	0.3368442017428913	-0.10982083480368683
-0.5374084485674324	-0.47249175180416725	-0.15655037269906777
-0.35302243125542	-0.5827215670607907	-0.09246001126000557
0.1644753286359339	-0.3875657710496577	0.10516330059201154
0.20660248647669727	0.35810277565787446	-0.09624150180554224
-0.6085887533245116	-0.2960189234151381	-0.10240784832580631
0.30187813609813924	0.2764903146727425	-0.0016964834085387275
0.3892863858609013	0.777403045767578	-0.008216959405901794
0.19056421729573655	-0.39505475959608133	0.1243021017517155
0.560589099131538	-0.38558334975774483	-0.09494613664037474
-0.5977819980460862	-0.37638252703520164	-0.14035028653482592
0.61771521722509	-0.30382985457801764	-0.0806929087770028
0.1252664616901048	-0.29162500935353297	0.07059451276654756
0.118447179072686	-0.21065186391970522	0.054518979479171205
0.21355689113273713	-0.2948189758593835	0.10889324048456399
-0.056360996086541375	0.16565451894201713	-0.033808140113124566
-0.07876750838131152	0.01054916097037741	0.1017227320370438
-0.5257940342242791	-0.45492407794768935	-0.15523954390712102
-0.5168346237364182	-0.39146598545002514	-0.1344225623668975
0.6266494210379189	-0.2523241585403996	-0.06904633248419491
0.16498352508827296	0.06702329941571751	0.15939838739685802
-0.37000516076434076	-0.56125232762853	-0.10822675333597793
0.6234766844594959	-0.2597207073228443	-0.06527134564776269
-0.5728305290959365	-0.3049203270458271	-0.09371457076055659
-0.41514748775944266	-0.42484736764438147	-0.11482023853412816
-0.4485411617413654	-0.3922772368339958	-0.11315326387132758
0.5056215354966759	-0.5372042774035604	-0.10529446833160223
-0.3734361591184142	-0.5093065404035606	-0.11837910598030904
0.18041964029469001	-0.3986108449016176	0.12366323501364276
0.5631072018237719	-0.39836085681424566	-0.09705940531777811
-0.42706679408330683	-0.456925346771006	-0.12581799720319273
0.5750365171083371	-0.34307119230428773	-0.08593955023436377
0.3937306324265811	0.7907624818838297	-0.007159427791584722
-0.5337654169914197	-0.4688797803090141	-0.15686326938210005
0.1012286952474994	-0.13659038468414908	0.06840592542939523
0.2211152871667652	0.35537379248592205	-0.10598035026298973
0.45502052347576416	0.5905402655627344	0.09309392484948803
-0.11897659320917471	0.45565825671272564	-0.09603056835227425
0.5450594752709284	-0.3358382491412443	-0.06844637832895775
-0.28080636023139843	0.7711625297374579	0.045314846067315014
-0.5204261372627776	-0.38382304762562136	-0.12835891062265697
0.49428553129351854	0.6008620471970709	0.09552963974265673
0.13468731410243467	-0.17160547144641378	0.06636581111732777
-0.5389135199454511	-0.47352200061041455	-0.1565165688006945
0.16509549820980363	-0.3888442514691493	0.10553340907507765
0.13624139754021883	0.1807330041997979	-0.13121041755985496
0.1568197326083841	0.0343601826424995	0.17302025004701452
0.5571819643920246	-0.30780749571053767	-0.060804941197358194
-0.570640235185149	-0.44627361405433597	-0.15349889357876773
0.19418938736229663	0.34251845984060286	-0.08838600401940429
0.5433804817858804	-0.344870005913347	-0.07089774595795133
0.05709602769671531	-0.24355214539483452	0.045160385030738395
0.18264642885587332	-0.4001259450651387	0.12243728912134803
0.19330820500821735	0.3431884444508621	-0.08637826720596761
-0.6347018253237658	-0.4809180525311015	-0.1335139386506332
0.5183688775702303	-0.5960937984741411	-0.08860275202050186
-0.299092940129142	0.21702432372264188	0.18955157500776798
-0.6348529426939833	-0.48080066989918513	-0.1333580233837265
-0.42273475618898115	-0.5805995323628302	-0.12719032119179513
0.6237457122901335	-0.3122901641445879	-0.08946670512827953
0.04854740086664124	0.21149220773410857	-0.12525199789570116
-0.015967657687549836	0.32455381648429427	-0.06697090927269643
-0.5474173731992192	-0.5317830208427621	-0.1493165463659322
0.5606206127836377	-0.34772800755250155	-0.0810003596303341
0.22526810201431724	0.39529652673731214	-0.12219690846426627
